ply
format ascii 1.0
comment VCGLIB generated
element vertex 1132
property float x
property float y
property float z
property uchar red
property uchar green
property uchar blue
property uchar alpha
element face 0
property list uchar int vertex_indices
end_header
-0.156063 0.655308 4.24231 245 218 162 255 
-0.132749 0.667809 4.23864 245 218 164 255 
0.377696 0.708664 4.79288 150 107 46 255 
-1.25621 0.250331 5.21539 192 144 93 255 
-1.17285 0.266318 5.22909 202 156 104 255 
-1.12843 0.284177 5.23019 195 148 97 255 
-1.12038 0.277812 5.23667 195 149 97 255 
-1.05623 0.29118 5.27022 195 149 94 255 
-0.750233 0.460778 4.63487 159 123 65 255 
-0.357524 0.608188 4.32408 228 198 146 255 
-0.155959 0.664097 4.25357 244 218 162 255 
-0.163432 0.668738 4.26657 240 214 156 255 
-0.131722 0.6792 4.24414 241 215 159 255 
-0.120994 0.678909 4.23606 242 215 159 255 
0.128294 0.729034 4.31173 219 184 135 255 
-1.25423 0.266617 5.21766 195 148 96 255 
-1.24232 0.262311 5.2175 203 158 103 255 
-1.05306 0.307359 5.2803 194 148 94 255 
-0.360701 0.617465 4.3355 231 201 150 255 
-0.343149 0.615845 4.35689 226 196 144 255 
-0.319057 0.625609 4.35263 229 200 145 255 
-0.173645 0.668689 4.28212 242 214 157 255 
-0.128852 0.690282 4.25159 244 216 160 255 
0.0857116 0.737815 4.28045 225 194 144 255 
0.122822 0.739604 4.31523 213 178 126 255 
0.20526 0.745827 4.42457 202 170 128 255 
0.693402 0.834414 4.61152 152 106 56 255 
0.727019 0.855159 4.54125 167 120 62 255 
0.735379 0.857403 4.51893 178 132 72 255 
-1.24601 0.277117 5.23344 207 162 111 255 
-1.13181 0.298636 5.25935 189 142 87 255 
-0.358143 0.628835 4.33621 228 199 147 255 
-0.14228 0.688144 4.26643 244 219 164 255 
0.0671917 0.737024 4.2705 231 201 149 255 
0.0672274 0.743698 4.2799 230 200 146 255 
0.0763329 0.744128 4.28702 230 200 149 255 
0.122849 0.746265 4.32596 211 177 126 255 
0.196519 0.753391 4.4176 206 174 131 255 
0.205273 0.753742 4.4291 202 170 128 255 
0.23008 0.744667 4.49649 202 170 130 255 
0.230527 0.751818 4.50285 200 166 127 255 
0.309674 0.736972 4.68445 156 113 65 255 
0.723403 0.862332 4.55543 172 125 63 255 
0.734073 0.864659 4.53075 184 136 76 255 
0.743336 0.870278 4.50876 187 140 75 255 
0.751743 0.874419 4.49783 185 138 74 255 
-1.32142 0.272174 5.21221 193 145 93 255 
-1.19412 0.292077 5.24439 201 154 99 255 
-1.05066 0.322931 5.29261 177 132 77 255 
-0.339415 0.631936 4.3763 215 186 130 255 
-0.139464 0.699005 4.27638 241 213 159 255 
0.123184 0.752413 4.33955 212 177 125 255 
0.300196 0.746452 4.69005 156 114 67 255 
0.720328 0.87123 4.5684 181 133 71 255 
0.737033 0.876977 4.53427 186 137 73 255 
0.744596 0.879942 4.51928 188 140 78 255 
-1.32033 0.284422 5.21836 182 134 80 255 
-0.59969 0.570395 4.45139 194 165 119 255 
-0.473793 0.61357 4.33177 217 186 136 255 
-0.436029 0.632573 4.30636 233 204 151 255 
-0.436335 0.630755 4.31576 235 205 153 255 
-0.140737 0.707904 4.29168 236 207 152 255 
-0.0466882 0.741663 4.24381 245 217 164 255 
-0.0292939 0.742851 4.24342 241 213 160 255 
0.026157 0.753659 4.28741 223 188 134 255 
0.124775 0.765974 4.36893 211 176 124 255 
0.199958 0.771096 4.46604 206 173 134 255 
0.417192 0.781892 4.77224 179 134 79 255 
0.726375 0.883727 4.55579 193 144 84 255 
-1.35837 0.287938 5.20421 178 131 79 255 
-1.06852 0.345422 5.325 176 129 76 255 
-1.05573 0.343418 5.33136 179 133 80 255 
-0.170133 0.705378 4.32158 241 215 161 255 
-0.159967 0.705904 4.31102 239 211 157 255 
-0.0557284 0.749709 4.24027 248 222 170 255 
-0.0191477 0.747895 4.27414 240 208 156 255 
0.0275167 0.762365 4.29851 220 187 131 255 
0.0901651 0.769428 4.33289 224 191 144 255 
0.725475 0.892997 4.565 197 148 92 255 
-1.21612 0.324504 5.27745 184 137 86 255 
-1.12099 0.34356 5.33037 177 131 75 255 
-1.06619 0.355073 5.36143 182 137 83 255 
-0.140565 0.720323 4.31275 235 206 149 255 
0.0692481 0.770967 4.32046 227 197 150 255 
0.0875457 0.77367 4.34355 228 196 147 255 
0.112446 0.782192 4.36365 209 175 123 255 
0.114752 0.782456 4.38731 213 180 129 255 
0.206688 0.788167 4.50537 196 161 116 255 
0.635028 0.872357 4.64397 180 132 80 255 
-1.33209 0.315178 5.23045 175 125 70 255 
-1.31826 0.321411 5.23463 183 135 80 255 
-1.30567 0.326111 5.24365 191 143 93 255 
-1.09064 0.361684 5.36177 181 134 78 255 
-1.07755 0.361313 5.36309 181 135 81 255 
-1.06357 0.368012 5.35343 183 137 84 255 
-0.0556379 0.762662 4.2567 238 210 155 255 
-0.0178324 0.772128 4.29205 229 194 136 255 
0.035602 0.778232 4.31704 229 197 141 255 
0.0829871 0.785271 4.3468 221 190 141 255 
0.092829 0.78642 4.35535 219 187 138 255 
0.103001 0.786993 4.36788 212 179 127 255 
0.156451 0.795817 4.44314 204 171 123 255 
0.702921 0.909141 4.59019 189 140 85 255 
-1.31764 0.330877 5.24538 188 139 87 255 
-1.29818 0.333462 5.26436 189 141 89 255 
-1.24507 0.342481 5.31171 193 144 93 255 
-1.11677 0.363983 5.35627 173 128 72 255 
-0.17099 0.729527 4.33843 239 212 162 255 
-0.0472499 0.769366 4.26379 240 208 156 255 
-0.00138557 0.780562 4.30847 223 189 135 255 
0.074139 0.789324 4.34993 218 186 137 255 
0.0860623 0.794705 4.37168 221 188 140 255 
0.0830118 0.797096 4.36441 221 189 141 255 
0.102919 0.79542 4.39783 211 177 128 255 
0.758483 0.942887 4.54712 176 128 64 255 
0.770706 0.94288 4.5109 173 126 65 255 
-1.39633 0.321655 5.248 189 141 88 255 
-1.33045 0.335006 5.29145 198 150 95 255 
-1.3207 0.328756 5.29553 203 154 106 255 
-1.31132 0.33512 5.30945 192 143 95 255 
-1.30017 0.332807 5.31118 192 143 95 255 
-1.29611 0.34373 5.31273 183 135 87 255 
-1.28347 0.345456 5.32072 179 131 81 255 
-1.2699 0.3394 5.31449 177 128 76 255 
-0.781791 0.563308 4.59159 155 116 60 255 
-0.769221 0.558729 4.58734 157 120 66 255 
-0.761281 0.559468 4.59769 174 140 92 255 
-0.63208 0.608816 4.47485 203 176 131 255 
-0.080786 0.777021 4.27921 234 205 152 255 
0.00195253 0.787591 4.31919 222 189 138 255 
0.00220341 0.787425 4.31955 222 189 138 255 
0.0137797 0.789745 4.32926 231 198 148 255 
0.0681499 0.799713 4.36134 224 192 146 255 
0.165417 0.799062 4.52443 193 159 116 255 
0.59809 0.89359 4.6621 185 136 85 255 
-1.4057 0.326985 5.24212 188 140 89 255 
-1.39276 0.330235 5.25461 186 137 85 255 
-1.37683 0.339824 5.26611 192 144 95 255 
-0.764906 0.57493 4.5882 179 145 93 255 
-0.772563 0.568428 4.59978 175 140 87 255 
-0.628714 0.6247 4.46473 205 178 135 255 
-0.0816541 0.782342 4.28696 243 214 162 255 
-0.0110329 0.794395 4.32455 222 189 136 255 
0.0949534 0.806431 4.40827 208 175 130 255 
0.45947 0.860738 4.72393 136 87 35 255 
0.603461 0.902026 4.67715 185 137 81 255 
-1.38081 0.348364 5.28028 197 149 101 255 
-1.29527 0.358019 5.33642 188 139 93 255 
-0.649042 0.62097 4.48934 209 181 139 255 
-0.0121583 0.803498 4.33797 223 190 140 255 
0.60851 0.914678 4.70315 188 140 86 255 
0.82001 0.989719 4.52212 199 152 107 255 
0.924029 0.997324 4.67726 137 65 19 255 
-0.0308744 0.80858 4.33003 230 198 146 255 
-0.0121562 0.812608 4.35013 230 199 149 255 
0.00918907 0.819796 4.36385 232 202 160 255 
0.0822351 0.831295 4.40832 210 178 133 255 
0.592042 0.917241 4.70243 193 145 93 255 
0.606145 0.92487 4.71995 194 146 93 255 
-1.44677 0.356715 5.22109 180 131 75 255 
-1.39571 0.362922 5.31011 194 147 100 255 
-0.36819 0.725004 4.42912 237 206 157 255 
-0.169484 0.777373 4.36207 218 185 125 255 
0.0626815 0.836049 4.40592 217 187 144 255 
0.0732283 0.838071 4.41707 210 179 134 255 
0.0733784 0.837968 4.4168 211 179 134 255 
0.0825614 0.837056 4.42238 203 170 122 255 
0.0964214 0.8385 4.44249 195 161 110 255 
0.918646 1.01086 4.68366 140 69 25 255 
0.926848 1.0152 4.67556 140 69 23 255 
-1.48055 0.361551 5.21177 146 92 39 255 
-1.36226 0.388604 5.31632 189 142 90 255 
-0.282409 0.761923 4.41529 240 216 166 255 
-0.109349 0.813859 4.30236 235 204 149 255 
-0.000364707 0.828533 4.37243 235 204 158 255 
0.052193 0.841965 4.40479 218 188 144 255 
0.0628373 0.841587 4.41832 212 182 138 255 
0.0725998 0.843189 4.42572 207 175 130 255 
0.528398 0.927896 4.70641 188 142 91 255 
-1.46039 0.380398 5.263 177 130 73 255 
-1.36475 0.391227 5.33974 172 124 73 255 
-1.26727 0.409955 5.38717 170 122 73 255 
-0.401299 0.733428 4.41178 230 198 150 255 
-0.231742 0.78105 4.43401 236 206 152 255 
0.0181704 0.845831 4.38625 226 196 154 255 
0.0414046 0.846938 4.41252 224 193 152 255 
0.0630009 0.847733 4.42945 214 183 141 255 
0.0729285 0.854518 4.44528 211 178 135 255 
0.0831599 0.853902 4.45722 207 174 128 255 
0.258319 0.850698 4.89866 122 74 28 255 
0.517987 0.932884 4.68942 191 145 92 255 
-1.28894 0.418498 5.40806 181 136 84 255 
-1.21183 0.43334 5.41306 192 147 101 255 
-0.402399 0.745326 4.43141 228 196 145 255 
-0.0468997 0.839061 4.3647 237 206 157 255 
-0.0189799 0.847961 4.38577 222 191 140 255 
0.0101135 0.854611 4.398 223 193 151 255 
0.0090388 0.849324 4.38887 226 196 153 255 
0.0535266 0.860395 4.44763 217 186 146 255 
0.0636695 0.860062 4.45666 216 185 144 255 
0.0695491 0.859812 4.45864 214 182 140 255 
0.587064 0.961812 4.75434 189 144 93 255 
0.664552 0.9825 4.6759 193 145 90 255 
-1.54716 0.377411 5.28699 129 73 28 255 
-1.36764 0.414543 5.37432 166 116 66 255 
-1.3119 0.425987 5.42952 182 134 83 255 
-1.27159 0.431313 5.41573 189 144 89 255 
-0.299392 0.7822 4.43879 244 216 165 255 
-0.160968 0.831 4.33688 238 208 153 255 
-0.104099 0.839764 4.33352 237 207 153 255 
-0.0560873 0.849575 4.37779 231 200 153 255 
-0.0300636 0.850441 4.38984 231 200 153 255 
-0.0282159 0.858382 4.3976 232 201 155 255 
-0.0187375 0.854278 4.3938 230 198 153 255 
-0.00877113 0.857454 4.39437 230 198 155 255 
0.000590294 0.859925 4.39875 224 193 152 255 
0.0723137 0.866825 4.48806 208 175 133 255 
0.078931 0.874263 4.49983 204 171 128 255 
0.50501 0.952218 4.72728 191 145 98 255 
0.575595 0.961216 4.76284 190 145 94 255 
1.08403 1.11276 4.6071 166 93 32 255 
1.09444 1.11224 4.60249 169 97 38 255 
-1.54456 0.391511 5.29811 139 85 40 255 
-1.52811 0.395574 5.23565 122 66 22 255 
-1.5443 0.391654 5.29751 139 85 40 255 
-1.44365 0.418763 5.30539 190 142 94 255 
-1.39506 0.423625 5.36013 161 111 59 255 
-0.0995238 0.853709 4.34862 233 203 149 255 
-0.0744141 0.852005 4.3576 232 202 153 255 
-0.074456 0.857988 4.36784 227 196 144 255 
-0.0193113 0.860982 4.40239 231 198 154 255 
-0.00897898 0.870827 4.41244 216 184 141 255 
0.000136849 0.86612 4.40996 217 185 144 255 
0.000359723 0.872058 4.419 222 192 149 255 
0.0465489 0.871542 4.46859 214 182 141 255 
0.477194 0.954582 4.72266 175 128 75 255 
1.11376 1.13216 4.60103 167 92 31 255 
1.10799 1.12276 4.59845 162 89 31 255 
-1.5601 0.391903 5.30836 131 80 35 255 
-1.48475 0.415443 5.27269 190 141 89 255 
-1.47538 0.418459 5.25108 187 137 86 255 
-1.41003 0.427032 5.37093 150 99 51 255 
-1.37823 0.431736 5.38432 156 106 58 255 
-0.122866 0.852158 4.35502 228 195 137 255 
-0.10954 0.854076 4.34609 232 200 146 255 
-0.0888045 0.864793 4.37057 231 201 149 255 
-0.0755269 0.864759 4.37925 226 195 143 255 
-0.0372309 0.870075 4.40635 212 178 130 255 
-0.0281009 0.873203 4.41237 210 177 130 255 
-0.0185357 0.875604 4.41698 211 179 133 255 
-0.00959961 0.877555 4.4176 216 185 139 255 
0.00152494 0.879164 4.43352 224 193 148 255 
0.0264253 0.877285 4.46146 221 190 148 255 
-1.54431 0.415324 5.29739 148 99 54 255 
-1.48281 0.428536 5.2972 196 146 97 255 
-1.46778 0.434516 5.32785 150 100 58 255 
-1.45006 0.437143 5.35833 142 93 48 255 
-1.40967 0.434672 5.3841 152 101 52 255 
-1.19929 0.494206 5.41108 166 120 67 255 
-0.445576 0.770451 4.44605 232 200 147 255 
-0.358955 0.797522 4.46162 237 206 148 255 
-0.0753315 0.872249 4.38732 230 201 151 255 
-0.0657631 0.87354 4.39214 229 199 150 255 
-0.0470304 0.877784 4.40872 219 186 137 255 
-0.0376004 0.878364 4.41572 218 185 137 255 
-0.037158 0.877032 4.41457 216 183 135 255 
-0.0276293 0.884611 4.42987 222 190 141 255 
-0.0276241 0.878323 4.42037 215 182 134 255 
-0.00782095 0.886525 4.44549 222 191 144 255 
0.00147267 0.887353 4.45321 224 191 147 255 
0.0120844 0.886129 4.44803 228 197 153 255 
0.0106663 0.89107 4.46571 225 194 150 255 
0.0202211 0.887166 4.46193 223 194 150 255 
1.1168 1.14998 4.59772 161 86 28 255 
-1.48309 0.435092 5.31175 167 118 74 255 
-1.46508 0.43576 5.35442 140 90 48 255 
-1.47301 0.437718 5.35498 136 85 46 255 
-1.46056 0.444003 5.35981 139 90 48 255 
-1.40978 0.446347 5.4181 172 122 77 255 
-1.19387 0.507817 5.4004 171 125 69 255 
-1.18669 0.507024 5.41043 165 119 64 255 
-1.18074 0.500985 5.42235 170 124 68 255 
-0.358579 0.806546 4.46878 233 201 142 255 
-0.065601 0.880383 4.40063 230 199 151 255 
-0.0471247 0.883297 4.41942 225 193 145 255 
-0.0552656 0.889804 4.41705 227 195 148 255 
0.0597085 0.90155 4.51566 201 169 130 255 
0.0695477 0.903346 4.52223 194 161 117 255 
0.699768 1.05023 4.6656 179 129 71 255 
1.22463 1.19428 4.5405 167 94 37 255 
-1.46673 0.443415 5.41389 167 118 74 255 
-1.43556 0.458105 5.43544 157 107 61 255 
-1.3059 0.489343 5.42835 164 119 59 255 
-1.19102 0.510151 5.4215 165 119 62 255 
-0.658447 0.739621 4.49638 196 163 120 255 
-0.337698 0.823289 4.47402 237 207 155 255 
-0.327904 0.821263 4.46915 245 215 166 255 
-0.0792328 0.88877 4.40464 230 201 153 255 
-0.0653724 0.896228 4.42343 227 196 150 255 
-0.0654678 0.889979 4.41306 224 193 147 255 
-0.0419304 0.898242 4.42923 219 188 141 255 
0.0432991 0.909785 4.51248 193 160 114 255 
1.22997 1.20451 4.53446 169 95 36 255 
-1.44671 0.459287 5.42634 164 116 69 255 
-0.558672 0.780144 4.44697 234 204 152 255 
-0.338032 0.831644 4.48368 238 210 159 255 
-0.327874 0.828321 4.47777 236 207 158 255 
-0.102419 0.898108 4.42427 233 202 158 255 
0.875527 1.10984 4.7271 142 71 21 255 
-0.357717 0.83657 4.49309 241 211 157 255 
-0.337471 0.838694 4.49054 242 213 163 255 
-0.106042 0.902023 4.4309 233 202 158 255 
-0.0333402 0.913099 4.46577 222 191 140 255 
-0.00476386 0.926572 4.49965 225 193 148 255 
0.00528534 0.927395 4.51076 216 184 138 255 
0.0384243 0.931656 4.55795 204 170 130 255 
1.23382 1.23138 4.54887 165 90 38 255 
-1.68671 0.440525 5.33512 138 75 30 255 
-1.67353 0.435468 5.33689 122 61 21 255 
-0.518284 0.808893 4.45431 252 227 180 255 
-0.497825 0.815786 4.45436 244 216 167 255 
-0.401016 0.832983 4.49324 246 218 168 255 
-0.366696 0.839035 4.4957 243 212 158 255 
-0.337623 0.847429 4.49771 247 217 168 255 
-0.15326 0.906882 4.39439 229 197 149 255 
-0.0217901 0.930331 4.48985 213 182 137 255 
-0.00450001 0.932872 4.51288 223 192 147 255 
0.00555405 0.933851 4.52426 211 182 137 255 
0.131132 0.930201 4.88384 109 61 26 255 
1.12915 1.21052 4.59791 174 100 44 255 
1.16362 1.21797 4.58621 172 97 41 255 
-0.540901 0.815716 4.46169 244 218 167 255 
-0.516987 0.818646 4.45919 246 221 173 255 
-0.479575 0.828073 4.47661 241 209 157 255 
-0.479031 0.828477 4.47714 240 209 157 255 
-0.467975 0.828857 4.485 238 207 154 255 
-0.153363 0.913577 4.41455 222 190 144 255 
-0.0339993 0.932344 4.49257 213 181 137 255 
-0.0230672 0.938777 4.51066 220 187 144 255 
6.39614e-05 0.940457 4.53878 210 180 136 255 
0.0279085 0.944231 4.57509 201 168 129 255 
0.423377 1.02999 4.78289 198 150 102 255 
0.432189 1.02819 4.78265 194 147 99 255 
-1.68608 0.456367 5.3469 129 68 26 255 
-0.557681 0.815003 4.46546 250 224 171 255 
-0.541616 0.824163 4.47427 238 209 160 255 
-0.528922 0.822004 4.46552 243 215 167 255 
-0.519769 0.825339 4.47242 241 213 165 255 
-0.510377 0.823877 4.47382 248 219 172 255 
-0.490989 0.834157 4.4865 236 205 155 255 
-0.480494 0.834217 4.49186 237 206 155 255 
-0.353637 0.861514 4.52404 244 215 164 255 
-0.0661576 0.941611 4.47797 218 188 147 255 
-0.0661608 0.935554 4.468 222 193 152 255 
-0.0346441 0.941669 4.50646 209 176 133 255 
-0.00757959 0.944288 4.5416 216 184 142 255 
0.828618 1.14196 4.76333 125 58 20 255 
0.837879 1.14401 4.76146 130 61 22 255 
-0.64151 0.799365 4.49351 230 199 151 255 
-0.563795 0.826957 4.47549 244 214 164 255 
-0.553033 0.822765 4.47029 243 215 165 255 
-0.530169 0.828152 4.47895 237 207 158 255 
-0.527604 0.83303 4.49744 232 200 149 255 
-0.480011 0.839219 4.49426 235 203 154 255 
-0.475732 0.840672 4.49787 236 205 155 255 
-0.465397 0.845582 4.50669 240 208 159 255 
-0.468684 0.84467 4.50113 236 205 156 255 
-0.388362 0.863693 4.52912 244 213 164 255 
-0.377032 0.869406 4.53483 251 222 173 255 
-0.0859993 0.947779 4.47712 215 184 144 255 
-0.0661707 0.947687 4.48765 219 188 148 255 
-0.0268806 0.956598 4.55582 212 181 142 255 
-0.0350811 0.950564 4.52817 202 170 129 255 
0.0051994 0.958272 4.60085 209 176 135 255 
0.770197 1.1475 4.60345 113 51 15 255 
0.770197 1.1475 4.60345 113 51 15 255 
-0.674992 0.801383 4.51729 235 206 158 255 
-0.57892 0.833513 4.48538 242 213 163 255 
-0.570932 0.836245 4.49975 234 203 152 255 
-0.550877 0.836202 4.50444 235 203 154 255 
-0.540198 0.831528 4.54714 235 203 156 255 
-0.529987 0.840086 4.54838 229 196 147 255 
-0.522253 0.83484 4.54978 228 195 146 255 
-0.512017 0.841322 4.54972 232 200 153 255 
-0.492256 0.848082 4.55377 242 211 163 255 
-0.481473 0.850216 4.54307 243 213 165 255 
-0.4691 0.85665 4.54448 244 214 165 255 
-0.470786 0.849266 4.53853 246 216 168 255 
-0.458006 0.855978 4.53842 248 217 168 255 
-0.411153 0.871465 4.53437 238 208 157 255 
-0.411153 0.871465 4.53437 238 208 157 255 
-0.411153 0.871465 4.53437 238 208 157 255 
-0.401872 0.869342 4.53387 240 209 159 255 
-0.390814 0.873197 4.54302 252 225 177 255 
-0.36304 0.876005 4.55422 243 214 163 255 
-0.345543 0.880669 4.5641 235 203 152 255 
-0.0959768 0.954826 4.48123 203 170 127 255 
-0.0863072 0.954245 4.48896 207 174 133 255 
-0.0774477 0.957722 4.49744 218 185 147 255 
-0.0685737 0.959624 4.508 212 180 143 255 
-0.0442858 0.9601 4.53527 202 169 130 255 
-0.0124572 0.962198 4.59988 216 185 144 255 
0.400886 1.04963 4.77153 184 139 85 255 
-1.07822 0.646703 5.39592 164 119 64 255 
-0.579877 0.839305 4.49952 236 206 156 255 
-0.573161 0.841259 4.51828 239 207 157 255 
-0.56043 0.839324 4.50796 237 205 155 255 
-0.560793 0.843937 4.53894 241 208 161 255 
-0.549696 0.847013 4.55963 240 206 161 255 
-0.49098 0.852474 4.55908 236 205 156 255 
-0.480114 0.863271 4.56692 222 189 139 255 
-0.481283 0.856707 4.55439 240 209 160 255 
-0.468957 0.862967 4.55617 236 204 154 255 
-0.457546 0.862552 4.54976 242 210 161 255 
-0.457549 0.868996 4.56199 231 198 149 255 
-0.446147 0.868102 4.54986 241 209 160 255 
-0.437147 0.874123 4.5621 236 204 155 255 
-0.0744164 0.964182 4.50967 217 183 147 255 
-0.0671539 0.967381 4.52615 203 170 132 255 
-0.0567875 0.968282 4.53761 203 170 131 255 
0.0783716 0.976926 4.91237 148 104 50 255 
0.157731 1.0015 4.83642 150 106 51 255 
0.157225 1.00174 4.8336 149 105 51 255 
0.393741 1.06396 4.80221 190 145 94 255 
0.407755 1.06376 4.79414 195 149 99 255 
1.13232 1.26493 4.61754 126 64 29 255 
-0.712708 0.813345 4.55153 231 200 150 255 
-0.700953 0.813144 4.53931 229 199 149 255 
-0.595174 0.842283 4.51576 241 210 161 255 
-0.587796 0.841695 4.51788 238 207 157 255 
-0.555976 0.845839 4.57961 235 202 156 255 
-0.469002 0.868711 4.57267 218 184 135 255 
-0.466375 0.870237 4.57297 217 183 134 255 
-0.457862 0.875451 4.58238 222 187 137 255 
-0.44589 0.875596 4.56082 234 201 153 255 
-0.437391 0.881168 4.5811 232 200 150 255 
0.0281033 0.986263 4.7549 158 120 67 255 
0.0669492 0.985556 4.93755 147 103 43 255 
0.0902603 0.988107 4.89643 158 113 55 255 
0.146384 1.00531 4.82645 150 105 51 255 
-0.700991 0.82091 4.55117 239 208 157 255 
-0.686508 0.834212 4.5415 241 211 160 255 
-0.615158 0.845115 4.52706 241 210 161 255 
-0.597579 0.849337 4.532 238 206 156 255 
-0.466211 0.877674 4.57977 205 170 120 255 
-0.465697 0.885723 4.58969 197 158 108 255 
-0.458048 0.883633 4.59472 204 167 118 255 
-0.447538 0.882346 4.58804 226 192 144 255 
-0.437594 0.888905 4.59087 226 193 146 255 
-0.427435 0.895514 4.59255 223 191 144 255 
-0.160973 0.97024 4.47744 220 190 151 255 
-0.0761657 0.981745 4.53498 197 163 122 255 
-0.0687305 0.982848 4.54852 204 169 129 255 
-0.0412182 0.987055 4.62685 211 178 134 255 
-0.0327475 0.987105 4.63806 207 173 131 255 
0.35859 1.07934 4.81292 187 141 89 255 
-0.675568 0.847703 4.53959 242 213 161 255 
-0.458533 0.89776 4.60622 197 159 109 255 
-0.427565 0.9024 4.6024 213 180 134 255 
-0.416405 0.908086 4.60021 217 185 138 255 
-0.0549943 0.989677 4.61232 203 169 126 255 
-0.0433091 0.995498 4.63647 213 179 135 255 
0.0554221 0.995016 4.95576 150 105 47 255 
0.354849 1.08769 4.82071 196 149 100 255 
0.724592 1.18568 4.64051 128 73 34 255 
-0.127264 0.995005 4.51034 214 182 143 255 
-0.108645 0.994979 4.53087 209 177 139 255 
-0.0631454 1.00587 4.63749 212 178 131 255 
0.0557509 1.01474 4.95651 143 98 42 255 
0.182931 1.05514 4.74561 157 112 61 255 
0.715034 1.19825 4.65561 109 55 21 255 
0.724714 1.19567 4.64985 96 41 13 255 
1.09489 1.29314 4.64446 171 97 35 255 
-0.669401 0.86671 4.54873 247 220 169 255 
-0.64699 0.866999 4.53661 237 205 153 255 
-0.19434 0.992319 4.48142 232 205 163 255 
-0.141078 1.004 4.52472 222 192 153 255 
-0.128119 1.00044 4.52469 212 181 143 255 
-0.132272 1.00403 4.53913 207 177 138 255 
-0.118781 1.00146 4.52362 209 177 138 255 
-0.119572 1.00261 4.53371 207 176 137 255 
-0.119924 1.00085 4.53028 208 177 137 255 
-0.108536 1.00143 4.54301 208 176 138 255 
-0.0731888 1.01316 4.64037 206 172 128 255 
-0.026722 1.0103 4.73557 169 133 84 255 
0.00934485 1.00661 4.96382 136 90 42 255 
0.334771 1.10043 4.81948 183 138 91 255 
0.346251 1.10056 4.82203 186 140 92 255 
-0.670457 0.872427 4.56071 250 221 171 255 
-0.659675 0.879565 4.55971 245 215 165 255 
-0.549444 0.905714 4.56631 242 209 157 255 
-0.203664 0.991811 4.48 238 209 165 255 
-0.142346 1.00979 4.54366 214 184 146 255 
-0.136927 1.01228 4.55876 210 179 141 255 
-0.11852 1.00906 4.56531 208 176 137 255 
-0.108571 1.0116 4.5861 207 175 133 255 
-0.100423 1.01666 4.61443 208 172 130 255 
-0.0830882 1.02078 4.64383 197 163 117 255 
-0.0830229 1.0137 4.63438 205 171 125 255 
-0.0735172 1.02014 4.65516 195 161 116 255 
-0.0731059 1.01593 4.64383 202 169 124 255 
-0.0535602 1.02154 4.71169 192 157 112 255 
-0.00517541 1.01892 4.95077 145 99 52 255 
0.00499469 1.01847 4.97736 138 92 43 255 
0.71516 1.21515 4.67208 110 46 16 255 
1.47326 1.40994 4.54326 149 82 59 255 
-0.672916 0.885535 4.58132 245 214 167 255 
-0.661385 0.883867 4.56205 248 218 168 255 
-0.132441 1.01708 4.56968 206 174 137 255 
-0.117208 1.01716 4.60466 201 169 127 255 
-0.0849554 1.02595 4.66518 194 159 113 255 
-0.0533985 1.02836 4.72167 191 156 110 255 
-0.00502936 1.02995 4.96513 149 102 55 255 
0.00206591 1.03151 5.0016 144 99 51 255 
0.275584 1.10588 4.82846 182 134 86 255 
0.285623 1.1065 4.83878 184 137 84 255 
0.296946 1.10802 4.83716 180 133 77 255 
-0.615388 0.903803 4.56578 242 210 157 255 
-0.220403 1.01064 4.50382 227 199 156 255 
-0.210594 1.01217 4.50794 225 196 154 255 
-0.128107 1.02484 4.62237 208 177 139 255 
-0.107148 1.03156 4.65233 197 162 116 255 
-0.097627 1.03086 4.66199 188 153 108 255 
-0.0866811 1.03441 4.68885 197 161 113 255 
-0.0641886 1.03479 4.72686 207 172 128 255 
-0.0656959 1.03815 4.72672 200 165 118 255 
-0.0474433 1.04211 4.7501 169 131 82 255 
0.244462 1.11306 4.82742 179 132 81 255 
0.254649 1.1145 4.83249 174 127 75 255 
0.2672 1.11304 4.83784 172 126 75 255 
0.285866 1.12552 4.84746 185 138 85 255 
-0.696277 0.896607 4.59416 203 166 114 255 
-0.211593 1.02583 4.53075 221 191 149 255 
-0.148948 1.03403 4.57333 204 170 130 255 
-0.0675319 1.04382 4.74952 195 159 113 255 
-0.0577525 1.04469 4.76687 170 132 82 255 
-0.060716 1.0505 4.7813 175 137 89 255 
-0.0606474 1.05076 4.78061 174 137 88 255 
0.188339 1.11178 4.81394 189 144 91 255 
0.685553 1.23881 4.69355 118 59 21 255 
-0.954325 0.804168 5.3539 156 113 57 255 
-0.109237 1.04668 4.67951 203 170 130 255 
-0.11762 1.04881 4.6636 206 174 134 255 
-0.11762 1.04881 4.6636 206 174 134 255 
-0.0703908 1.05397 4.78671 186 149 103 255 
0.993614 1.33102 4.71221 169 98 34 255 
-1.27613 0.744887 5.27236 126 74 28 255 
-0.943047 0.818836 5.35245 160 117 61 255 
-0.609905 0.936347 4.58002 217 182 126 255 
-0.195321 1.04554 4.55674 225 196 159 255 
-0.172342 1.051 4.60033 204 172 133 255 
-0.0910551 1.05546 4.83379 184 148 104 255 
0.643437 1.25179 4.67473 185 135 87 255 
-1.73774 0.625814 5.3578 176 128 79 255 
-0.616474 0.946838 4.59502 219 183 133 255 
-0.605155 0.948256 4.58826 225 187 134 255 
-0.182459 1.05473 4.58355 201 171 133 255 
-0.184487 1.05331 4.58092 207 178 141 255 
-0.0965373 1.06506 4.8379 183 147 103 255 
0.247446 1.15194 4.85821 186 140 91 255 
-1.62674 0.677118 5.34375 166 120 67 255 
-0.604314 0.962723 4.58327 230 195 148 255 
-0.188984 1.06895 4.60414 207 177 137 255 
-1.63635 0.687023 5.35378 159 113 60 255 
-0.916592 0.86598 5.32638 153 109 63 255 
-0.197151 1.0746 4.60124 203 172 134 255 
-0.19755 1.07448 4.6028 203 172 134 255 
-0.196975 1.07484 4.6 203 172 134 255 
-0.168019 1.08026 4.64279 207 172 128 255 
-0.0649629 1.09534 4.94516 123 78 34 255 
-0.055201 1.10043 4.94143 148 104 58 255 
-1.65342 0.685509 5.36477 161 114 64 255 
-1.64985 0.696311 5.3529 160 114 63 255 
-1.2611 0.795319 5.27177 152 107 55 255 
-0.918104 0.875754 5.33987 159 114 65 255 
-0.193181 1.08499 4.63598 204 172 131 255 
-0.183369 1.08475 4.64303 207 174 132 255 
-0.183361 1.08684 4.64195 208 174 132 255 
-1.74247 0.676205 5.34722 199 152 105 255 
-1.666 0.701167 5.36423 159 112 62 255 
-0.910499 0.887362 5.34174 157 112 63 255 
-0.896469 0.8879 5.33374 147 104 53 255 
-0.853005 0.909376 5.3345 155 112 60 255 
-0.255214 1.08361 4.56427 229 200 161 255 
-0.220478 1.08932 4.58601 213 184 146 255 
-0.222323 1.09185 4.59257 212 183 144 255 
1.0179 1.39867 4.71875 170 95 39 255 
-1.76966 0.685334 5.35574 200 152 108 255 
-1.74985 0.689604 5.36434 202 154 110 255 
-0.90261 0.898969 5.33893 156 112 62 255 
-0.859127 0.920113 5.33758 146 102 50 255 
-0.845591 0.921282 5.33456 147 105 53 255 
-0.845591 0.921282 5.33456 147 105 53 255 
-0.250243 1.09363 4.60185 228 197 159 255 
-0.240743 1.09421 4.59873 217 189 149 255 
-0.239526 1.09376 4.60962 216 188 147 255 
-0.231909 1.09601 4.60681 212 184 144 255 
-0.222077 1.09711 4.61788 208 177 139 255 
-0.218872 1.09905 4.62177 208 176 138 255 
-0.206288 1.10564 4.66787 206 173 131 255 
-0.89512 0.921489 5.33898 146 99 52 255 
-0.880958 0.922545 5.33251 151 105 56 255 
-0.867787 0.922314 5.3307 149 104 54 255 
-0.866757 0.921566 5.33287 149 104 53 255 
-0.856074 0.922974 5.33346 145 101 49 255 
-0.332154 1.0885 4.54486 245 220 180 255 
-0.240701 1.10103 4.61149 215 186 145 255 
-0.231827 1.10271 4.62155 212 181 141 255 
-0.231855 1.10977 4.62971 211 179 137 255 
-0.229039 1.10214 4.62917 211 180 140 255 
-0.221255 1.11166 4.64861 205 172 128 255 
-0.21145 1.11207 4.64264 201 168 124 255 
0.718438 1.33625 4.87587 163 92 38 255 
-1.77723 0.701261 5.36408 200 151 111 255 
-0.868775 0.937248 5.32658 138 91 41 255 
-0.854711 0.938903 5.32203 142 97 46 255 
-0.842055 0.938704 5.31775 137 94 43 255 
-0.296684 1.09895 4.59152 237 209 170 255 
-0.250328 1.10765 4.61418 217 187 146 255 
-0.25026 1.11579 4.61969 213 181 140 255 
-0.221419 1.11883 4.64941 200 168 122 255 
-1.55521 0.773054 5.2746 145 100 52 255 
-0.857267 0.954252 5.3202 127 82 33 255 
-0.343597 1.09749 4.55368 242 216 174 255 
-0.269733 1.12016 4.61409 214 182 143 255 
-0.25996 1.1213 4.62573 212 179 137 255 
-0.250723 1.12274 4.63843 206 173 130 255 
-0.255767 1.12557 4.63813 219 185 143 255 
-0.240962 1.12446 4.64289 200 167 120 255 
-0.231239 1.12519 4.64822 198 165 120 255 
-0.109265 1.14521 5.03133 154 108 54 255 
0.644376 1.33958 4.91774 96 38 14 255 
0.654002 1.33975 4.91612 97 39 12 255 
1.08561 1.4622 4.68511 178 101 45 255 
-0.860064 0.968745 5.32821 126 79 32 255 
-0.850508 0.967757 5.33314 124 79 30 255 
-0.253648 1.1354 4.66598 197 163 115 255 
-0.241041 1.13153 4.64684 197 162 115 255 
-0.223327 1.13569 4.73597 190 154 102 255 
1.13748 1.47872 4.66673 178 104 42 255 
-0.268406 1.13498 4.63541 207 173 130 255 
-0.116396 1.16629 5.02192 144 99 48 255 
-0.100234 1.17682 5.00052 152 107 54 255 
-0.0894498 1.1763 4.9982 157 109 53 255 
0.405768 1.30386 4.82938 161 114 55 255 
0.405683 1.30453 4.82865 161 114 55 255 
0.569102 1.34608 4.74599 133 77 40 255 
0.648046 1.36674 4.93061 150 76 26 255 
-0.385446 1.12329 4.57554 244 216 171 255 
-0.32874 1.13589 4.60039 227 198 156 255 
-0.313502 1.13679 4.61251 220 190 148 255 
0.383369 1.31046 4.82439 164 115 59 255 
0.403818 1.3128 4.82254 160 115 53 255 
0.40336 1.31353 4.8214 160 115 53 255 
-1.52003 0.836505 5.23459 160 112 62 255 
-0.385581 1.13337 4.59292 241 213 167 255 
-0.344433 1.13805 4.60156 232 205 162 255 
-0.301246 1.14702 4.64177 212 181 137 255 
-0.282967 1.15813 4.68615 205 171 126 255 
-0.283072 1.15823 4.68582 205 171 126 255 
-0.28373 1.15513 4.65644 208 174 131 255 
-0.273094 1.15718 4.69325 213 177 138 255 
0.0731962 1.24249 4.9069 207 163 117 255 
0.333079 1.31115 4.87025 164 117 59 255 
-0.404078 1.13941 4.59077 247 217 171 255 
-0.320126 1.15646 4.6446 219 189 145 255 
-0.314528 1.15398 4.64638 215 184 140 255 
-0.282958 1.16779 4.69648 199 165 119 255 
-0.283062 1.16793 4.69626 199 165 119 255 
-1.88698 0.763027 5.33517 87 38 16 255 
-0.941691 0.998352 5.30401 133 85 35 255 
-0.542627 1.11071 4.61147 240 208 158 255 
-0.474306 1.1321 4.63326 226 188 130 255 
-0.39599 1.14725 4.60785 232 202 157 255 
-0.320158 1.17124 4.66828 220 188 146 255 
-0.296757 1.16771 4.68466 205 171 129 255 
-0.283105 1.17158 4.7165 195 160 116 255 
-0.28381 1.17181 4.70678 198 163 118 255 
-0.948586 1.01029 5.28713 130 81 33 255 
-0.545013 1.11774 4.61683 233 199 151 255 
-0.48444 1.13995 4.63594 226 189 133 255 
-0.395414 1.15524 4.61489 233 201 156 255 
-0.350101 1.16685 4.65135 229 199 156 255 
-0.330063 1.1711 4.66258 226 193 152 255 
-0.3204 1.17882 4.67954 207 174 131 255 
0.541078 1.3985 4.75873 110 47 17 255 
0.614848 1.41169 4.95995 125 55 19 255 
-0.504719 1.14067 4.62045 239 204 151 255 
-0.485508 1.14926 4.65428 230 193 139 255 
-0.423188 1.15941 4.61695 239 207 162 255 
-0.412568 1.16834 4.62475 232 199 151 255 
-0.368145 1.17489 4.64789 233 203 159 255 
-0.371766 1.17185 4.63431 235 204 161 255 
-0.33892 1.18422 4.67239 212 179 138 255 
-0.329741 1.1859 4.67914 203 170 126 255 
-0.320587 1.18697 4.68738 200 166 122 255 
-0.299147 1.19763 4.73422 193 157 117 255 
-0.279495 1.19538 4.73529 184 148 105 255 
-0.400478 1.18281 4.63342 219 185 134 255 
-0.389873 1.18086 4.63972 227 192 145 255 
-0.382455 1.17772 4.64137 233 200 155 255 
-0.368155 1.18222 4.65725 224 193 150 255 
-0.341285 1.19151 4.68714 210 177 134 255 
-0.331157 1.19189 4.69214 206 172 128 255 
-0.323214 1.1984 4.7151 202 167 123 255 
-0.322002 1.19394 4.70582 218 184 145 255 
-0.308817 1.19835 4.72933 192 157 114 255 
-0.304201 1.2004 4.74367 207 172 137 255 
-0.29637 1.20045 4.75746 192 156 116 255 
0.584371 1.43002 4.98162 143 71 25 255 
-0.471047 1.16823 4.65339 235 201 149 255 
-0.427487 1.18627 4.63717 228 194 150 255 
-0.399242 1.18705 4.65089 223 188 138 255 
-0.382158 1.1877 4.66023 241 210 167 255 
-0.358522 1.19491 4.69043 224 193 149 255 
-0.349377 1.19788 4.69898 217 184 141 255 
-0.346091 1.20094 4.69904 215 182 139 255 
-0.969082 1.05664 5.29519 133 85 38 255 
-0.427694 1.19334 4.65304 235 202 156 255 
-0.418544 1.19711 4.65967 229 195 148 255 
-0.382225 1.19825 4.67671 246 215 173 255 
-0.372449 1.20294 4.69209 227 196 154 255 
-0.365991 1.20556 4.71119 221 188 145 255 
-0.372449 1.20294 4.69209 227 196 154 255 
-0.342042 1.21337 4.71946 201 167 124 255 
-0.328438 1.21663 4.75875 208 174 133 255 
-0.318461 1.21646 4.76671 205 172 130 255 
0.777425 1.50207 4.8796 158 85 34 255 
-1.79382 0.859344 5.29144 183 132 87 255 
-0.457295 1.19897 4.6716 249 221 180 255 
-0.447399 1.1951 4.67073 248 220 179 255 
-0.438009 1.19761 4.66392 248 219 178 255 
-0.42969 1.20019 4.66883 238 205 160 255 
-0.418434 1.20456 4.66806 232 199 151 255 
-0.409362 1.20851 4.67249 225 190 144 255 
-0.383417 1.21346 4.70955 234 201 159 255 
-0.365382 1.21374 4.71718 222 189 148 255 
-0.365396 1.2134 4.71743 222 189 148 255 
-0.357172 1.21504 4.73371 224 191 155 255 
-0.357374 1.21541 4.73442 224 191 155 255 
-0.345897 1.21913 4.74565 215 181 141 255 
-0.449654 1.20511 4.67492 246 218 176 255 
-0.453241 1.20794 4.6846 244 215 171 255 
-0.441206 1.21065 4.686 246 216 171 255 
-0.430096 1.2065 4.68161 233 201 152 255 
-0.062141 1.30772 4.99864 149 103 54 255 
0.327536 1.40019 4.83514 161 114 59 255 
-1.86289 0.870442 5.39307 127 66 32 255 
-0.666373 1.16813 4.99556 122 76 31 255 
-0.675673 1.16694 4.997 122 76 31 255 
-0.656725 1.17208 5.00896 129 82 36 255 
-0.472222 1.21515 4.74478 220 186 141 255 
-0.453864 1.21918 4.7197 233 200 154 255 
-0.460764 1.21565 4.75104 226 193 148 255 
-0.0662411 1.31795 5.00851 151 104 55 255 
0.682633 1.50214 4.93655 159 88 31 255 
0.678278 1.50993 4.94163 166 94 37 255 
0.688768 1.5114 4.93629 164 91 32 255 
0.72834 1.51702 4.91543 159 90 33 255 
0.961417 1.57473 4.78723 129 66 31 255 
-0.665868 1.17237 5.00875 127 81 32 255 
-0.65582 1.18049 5.01737 136 90 40 255 
-0.646761 1.17754 5.02096 135 88 41 255 
-0.468793 1.22269 4.74497 210 174 129 255 
-0.434663 1.23555 4.77956 223 188 140 255 
-0.422653 1.23661 4.77794 219 184 136 255 
-0.348149 1.25028 4.88435 146 104 63 255 
-0.67202 1.18757 5.00256 133 89 36 255 
-0.64511 1.19774 5.13572 138 91 42 255 
-0.6314 1.19773 5.13413 129 82 36 255 
-0.467814 1.23162 4.75357 193 156 111 255 
-0.383731 1.25474 4.92273 124 83 41 255 
-0.383302 1.26274 4.93056 106 65 33 255 
-0.32384 1.26788 4.8607 127 81 40 255 
-0.682591 1.18978 4.98713 129 84 38 255 
-0.683254 1.19855 4.99918 138 92 45 255 
-0.639133 1.21055 5.14472 140 93 45 255 
-0.46892 1.24101 4.78352 175 137 93 255 
-0.394231 1.26738 4.93207 105 64 31 255 
-0.396294 1.26132 4.93064 109 67 32 255 
-0.38309 1.26987 4.92944 104 63 31 255 
-0.361648 1.27134 4.91418 122 75 34 255 
-0.367769 1.27749 4.91911 121 75 33 255 
-0.360413 1.27234 4.91942 104 62 27 255 
-0.343486 1.27576 4.91007 106 63 27 255 
-0.221638 1.31778 5.10412 124 77 33 255 
0.118637 1.39337 5.04975 194 145 105 255 
0.980314 1.60798 4.77955 131 64 27 255 
-0.692296 1.19898 4.97377 132 88 42 255 
-0.660923 1.21339 5.1248 152 107 57 255 
-0.65056 1.21136 5.14037 148 102 54 255 
-0.631649 1.22339 5.13259 145 100 50 255 
-0.229435 1.32772 5.11545 125 78 33 255 
-0.193427 1.33557 5.06933 128 80 32 255 
-0.193324 1.336 5.06825 128 80 32 255 
0.208576 1.4265 4.93608 155 107 51 255 
0.493625 1.50693 5.05378 116 52 21 255 
-0.683697 1.21453 5.13539 163 121 72 255 
-0.659992 1.22691 5.13172 158 113 62 255 
-0.634959 1.2346 5.12964 146 100 51 255 
-0.641354 1.22493 5.12871 150 104 54 255 
-0.221029 1.33991 5.1019 130 83 38 255 
-0.214185 1.3358 5.08274 130 85 36 255 
-0.746731 1.20888 5.04584 141 95 44 255 
-0.742738 1.21544 5.04251 144 98 48 255 
-0.727793 1.21571 4.98988 138 92 42 255 
-0.727806 1.21571 4.99002 138 92 42 255 
-0.717156 1.21319 4.99725 138 92 43 255 
-0.685961 1.22917 5.13643 155 112 62 255 
-0.219839 1.34372 5.09758 130 82 38 255 
-0.0362461 1.38995 5.01861 203 157 114 255 
-0.744709 1.22819 5.10392 156 108 59 255 
-0.693301 1.23612 5.13185 156 111 61 255 
-0.678021 1.24386 5.123 152 106 55 255 
-0.0897819 1.39256 5.03759 173 128 78 255 
-1.52442 1.0419 5.1755 210 162 114 255 
-0.791655 1.22506 5.03851 141 93 42 255 
-0.789884 1.22731 5.03228 141 93 42 255 
-0.773928 1.22504 5.04757 146 99 45 255 
-0.781194 1.22957 5.042 144 97 44 255 
-0.773061 1.2226 5.04598 146 98 44 255 
-0.755762 1.23049 5.10331 156 110 59 255 
-0.710324 1.24089 5.13237 155 111 62 255 
-0.668299 1.26022 5.12076 145 98 48 255 
-0.657443 1.26091 5.11406 146 99 49 255 
-0.655716 1.27525 5.10537 141 93 44 255 
0.464646 1.55604 5.08179 115 49 21 255 
-0.581299 1.30373 5.13805 131 80 39 255 
-0.567685 1.30101 5.12713 128 77 35 255 
0.00602748 1.44698 5.05564 189 143 94 255 
0.000231141 1.46347 5.06978 186 139 94 255 
0.846765 1.66187 4.86939 174 101 37 255 
-0.716516 1.2836 5.12037 135 90 40 255 
-0.604817 1.31916 5.13613 125 77 37 255 
0.122401 1.49872 5.02599 159 109 53 255 
0.447143 1.58711 5.10262 116 49 18 255 
0.869488 1.68061 4.87056 162 91 36 255 
0.923714 1.69683 4.8479 175 101 44 255 
0.956098 1.70732 4.83376 174 101 42 255 
-1.81386 1.02877 5.37607 89 38 14 255 
0.0137383 1.48265 5.11228 198 150 108 255 
1.01643 1.7267 4.79686 157 87 47 255 
0.424762 1.59686 5.11724 120 56 22 255 
-0.157036 1.46488 5.06213 150 102 54 255 
-0.857885 1.29645 5.09045 142 97 51 255 
-0.857956 1.29694 5.09114 142 97 50 255 
-0.155368 1.47858 5.06825 146 99 55 255 
0.0667816 1.53102 5.08929 148 96 47 255 
0.275203 1.57811 4.88437 200 149 115 255 
-0.125937 1.49527 5.09717 182 134 88 255 
-0.123912 1.49889 5.10517 182 135 87 255 
-1.28872 1.21615 5.1273 183 137 89 255 
-1.19583 1.23682 5.14549 172 127 84 255 
-0.145289 1.50055 5.11806 170 123 75 255 
-0.0350669 1.5246 5.11385 195 149 106 255 
-1.5705 1.16043 5.28443 211 159 113 255 
-0.191818 1.49971 5.05237 149 101 62 255 
-0.174847 1.50951 5.12712 134 85 43 255 
-0.164001 1.51204 5.12265 153 105 59 255 
-0.0394445 1.54491 5.15096 192 143 100 255 
-0.0394445 1.54491 5.15096 192 143 100 255 
0.0751222 1.56731 5.02864 153 104 50 255 
0.29345 1.6133 4.9252 165 111 76 255 
-0.932645 1.31851 5.07198 146 102 51 255 
-0.178098 1.52157 5.14816 130 79 39 255 
-0.243678 1.50596 5.02705 190 142 103 255 
-0.182128 1.53202 5.14786 132 82 40 255 
-0.171257 1.53078 5.15186 150 100 54 255 
-0.142312 1.54105 5.15016 197 147 109 255 
-0.139213 1.53397 5.15575 198 148 112 255 
-0.108832 1.54984 5.1439 189 138 100 255 
-0.110729 1.54342 5.14385 192 142 102 255 
-0.0851156 1.54598 5.12635 182 132 86 255 
-0.0621496 1.55397 5.15296 195 146 105 255 
0.357306 1.66689 5.17179 110 51 22 255 
0.927238 1.79383 4.86415 161 92 45 255 
0.969474 1.79884 4.83828 147 83 43 255 
-0.189437 1.53529 5.17966 137 85 45 255 
-0.07509 1.56709 5.173 199 150 108 255 
0.357734 1.67648 5.17481 111 51 19 255 
0.689865 1.75555 5.00163 157 88 41 255 
0.406565 1.69913 5.1476 128 65 24 255 
-1.42075 1.23977 5.13945 182 134 88 255 
-0.730721 1.41613 4.9991 186 140 96 255 
-0.294862 1.52382 5.03169 188 140 101 255 
-0.0957009 1.58577 5.1875 200 151 109 255 
0.0900216 1.61689 4.99726 158 109 53 255 
0.102425 1.62025 4.97918 167 118 63 255 
0.211475 1.64621 4.92622 208 159 121 255 
0.00790253 1.6178 5.06541 153 103 51 255 
0.0845135 1.6281 4.99459 163 113 60 255 
0.096678 1.63134 4.97412 167 118 64 255 
0.216642 1.66172 4.9294 189 140 103 255 
-1.41597 1.27065 5.15438 195 145 101 255 
-0.163758 1.58733 5.17888 189 139 100 255 
0.0923816 1.64403 4.98741 170 120 71 255 
0.216693 1.66648 4.94854 186 136 99 255 
-1.37795 1.2915 5.11958 186 136 96 255 
-0.880212 1.41026 4.99541 198 149 99 255 
-0.0201355 1.63741 5.11246 145 94 39 255 
0.0833306 1.65619 4.99674 168 118 70 255 
0.134858 1.66087 4.95805 166 117 63 255 
0.437363 1.76518 5.15098 182 107 45 255 
-1.70819 1.25952 5.54723 193 141 95 255 
-1.39779 1.30787 5.12332 188 138 102 255 
-0.498238 1.52038 4.93969 181 134 89 255 
-0.506224 1.52276 4.94501 182 134 89 255 
-0.470821 1.52511 4.93363 178 133 84 255 
0.435752 1.77815 5.15278 175 100 43 255 
0.468587 1.78676 5.14113 171 96 39 255 
0.478849 1.79035 5.133 173 101 48 255 
-0.621102 1.50597 4.95755 192 144 98 255 
-0.584192 1.5145 4.94888 187 140 94 255 
-0.355479 1.5756 5.04561 186 139 100 255 
-0.355479 1.5756 5.04561 186 139 100 255 
-0.155817 1.63491 5.19245 192 141 101 255 
-1.72308 1.27462 5.52931 102 52 29 255 
-0.674665 1.50261 4.97305 196 149 103 255 
0.189589 1.71851 4.98893 162 108 71 255 
0.294957 1.76538 5.227 132 67 35 255 
0.329755 1.77145 5.21365 119 57 31 255 
-1.73039 1.28232 5.51936 87 39 17 255 
-0.700152 1.50802 4.97417 219 170 126 255 
-0.680271 1.5119 4.97391 202 153 107 255 
-0.612335 1.53009 4.96794 189 139 92 255 
0.253752 1.77447 5.26358 120 53 23 255 
0.541998 1.83245 5.10315 180 100 45 255 
-1.408 1.34401 5.13379 177 129 87 255 
-0.689924 1.5153 4.97681 209 160 114 255 
-0.677887 1.52215 4.97386 205 156 107 255 
-0.667461 1.52065 4.97119 201 152 102 255 
-0.410711 1.59553 5.03148 149 102 62 255 
-0.400958 1.59239 5.03982 158 110 70 255 
-0.239136 1.64755 5.18103 185 136 97 255 
0.535235 1.84156 5.10836 172 94 37 255 
0.568522 1.84509 5.08859 184 106 44 255 
0.580247 1.84808 5.08329 185 107 51 255 
-0.873296 1.48332 5.01746 188 138 96 255 
-0.407601 1.6111 5.04841 168 121 78 255 
0.295861 1.80942 5.24683 127 63 30 255 
0.563146 1.85606 5.09558 178 100 40 255 
0.873876 1.9225 4.92273 164 93 48 255 
-0.824661 1.5013 4.97498 198 149 105 255 
-0.599717 1.56406 4.9583 200 151 103 255 
-0.535073 1.57951 4.95722 190 142 95 255 
-0.538562 1.57014 4.93539 199 151 105 255 
0.178301 1.76671 5.00627 120 58 22 255 
0.480526 1.85438 5.14485 162 92 42 255 
-0.760255 1.53253 5.0378 205 155 110 255 
-0.747765 1.53985 5.03476 208 158 111 255 
-0.62069 1.56351 4.97897 207 157 107 255 
-0.621431 1.57283 4.98946 213 162 114 255 
-0.610172 1.56752 4.98249 204 155 104 255 
-0.608893 1.57216 4.98657 206 156 107 255 
0.143121 1.76789 5.00154 177 126 88 255 
0.86852 1.94565 4.94095 165 96 46 255 
-1.56478 1.37836 5.39294 188 137 85 255 
-1.56478 1.37836 5.39294 188 137 85 255 
-0.758844 1.54307 5.0414 198 148 102 255 
-0.74279 1.54973 5.04184 202 152 107 255 
-0.724429 1.55973 5.04097 205 154 106 255 
-0.620082 1.58068 4.99313 212 162 114 255 
-0.602959 1.58261 4.99884 208 158 112 255 
-0.539113 1.59218 4.96834 198 150 102 255 
-0.304111 1.66054 4.94689 147 98 62 255 
0.481743 1.87408 5.14952 139 76 36 255 
0.496812 1.88311 5.1414 122 62 31 255 
0.58906 1.89302 5.08673 166 95 40 255 
-0.579405 1.60135 4.98149 207 158 111 255 
-0.572245 1.59912 4.96831 205 157 108 255 
-0.330472 1.66548 5.01282 111 69 40 255 
-0.290548 1.66515 4.93274 152 104 68 255 
0.51296 1.89535 5.13392 119 62 25 255 
0.55143 1.8969 5.11112 153 82 43 255 
-0.565723 1.61037 4.98828 216 169 120 255 
-0.535646 1.62229 4.97727 217 168 129 255 
-0.434073 1.64989 5.02362 164 115 79 255 
-0.423017 1.64989 5.03007 138 89 53 255 
-0.419443 1.66034 5.04565 146 97 59 255 
-0.368497 1.67139 5.06358 113 68 36 255 
-0.330584 1.67746 5.03773 131 88 56 255 
0.231236 1.84358 5.2886 121 58 26 255 
0.252418 1.85657 5.28011 119 58 24 255 
0.540362 1.90743 5.11983 134 73 37 255 
0.546112 1.91709 5.12203 123 60 31 255 
-0.429678 1.66032 5.03551 153 104 70 255 
-0.427783 1.67083 5.05826 131 83 50 255 
-0.382126 1.67344 5.0577 112 69 36 255 
-0.358611 1.69098 5.15393 149 100 61 255 
-0.358556 1.69964 5.15728 158 109 69 255 
-0.357006 1.69849 5.15878 158 109 68 255 
-0.357006 1.69849 5.15878 158 109 68 255 
-0.328944 1.68942 5.04205 145 101 62 255 
-0.326322 1.68936 5.04017 145 101 62 255 
0.0975501 1.79868 5.02187 174 123 86 255 
0.260126 1.86823 5.27217 119 58 25 255 
0.270847 1.87248 5.26868 130 65 34 255 
0.514273 1.91836 5.1396 151 86 41 255 
-1.02607 1.5222 5.01248 204 153 111 255 
-0.458553 1.65696 4.96772 149 101 64 255 
-0.428237 1.68615 5.08811 113 72 41 255 
-0.389243 1.69685 5.15116 147 99 63 255 
-0.358654 1.70959 5.17309 181 135 100 255 
-0.346733 1.70931 5.18913 192 146 113 255 
-1.33687 1.46289 5.10165 190 142 97 255 
-0.484809 1.66055 4.94229 213 163 120 255 
-0.484483 1.66055 4.94099 213 163 120 255 
-0.484483 1.66055 4.94099 213 163 120 255 
-0.432514 1.6914 5.1069 117 76 48 255 
-0.430728 1.68587 5.08435 112 70 41 255 
-0.437985 1.68733 5.09038 113 71 44 255 
-0.421332 1.6922 5.11315 127 83 48 255 
-0.423283 1.69977 5.11523 133 90 55 255 
-0.409036 1.70398 5.16018 146 98 68 255 
-0.423365 1.71282 5.14999 151 105 72 255 
0.234544 1.90081 5.30504 130 65 34 255 
0.403808 1.92858 5.20869 153 82 35 255 
-1.3424 1.47988 5.11202 146 100 60 255 
0.250481 1.9117 5.29765 121 60 23 255 
-1.31445 1.49483 5.09696 162 116 76 255 
-1.06662 1.55284 5.02225 202 151 114 255 
-1.06204 1.55245 5.01591 202 152 113 255 
-0.429129 1.73554 5.18502 183 135 103 255 
-0.386127 1.74642 5.19241 194 146 116 255 
0.151345 1.9021 5.35833 133 64 29 255 
0.337569 1.93416 5.24732 143 79 37 255 
-1.08858 1.55607 5.03642 202 150 114 255 
-0.905392 1.60964 5.05711 205 157 120 255 
0.139757 1.91305 5.36289 135 64 27 255 
0.161456 1.91581 5.35683 136 65 33 255 
-1.13681 1.55668 5.02661 203 153 112 255 
-1.12548 1.55717 5.0273 203 154 114 255 
-0.799533 1.65588 5.0929 202 154 112 255 
-0.696423 1.67625 5.07408 201 151 110 255 
-0.0425847 1.84671 5.08955 162 112 64 255 
0.12562 1.91905 5.37213 152 81 47 255 
0.132281 1.92484 5.37672 154 82 47 255 
0.138455 1.92795 5.37328 157 85 49 255 
-1.12722 1.57261 5.03154 211 161 123 255 
-0.58281 1.71331 5.0556 192 141 96 255 
0.463884 1.99819 5.18923 124 63 30 255 
-1.15192 1.57494 5.03509 208 160 117 255 
-1.10822 1.58749 5.04436 215 165 127 255 
-0.81333 1.66919 5.08311 198 148 113 255 
0.199578 1.96515 5.34481 156 85 41 255 
0.25304 1.96829 5.30789 153 77 41 255 
0.261838 1.97223 5.30029 150 77 37 255 
-1.22756 1.56543 5.05397 181 132 89 255 
-1.21888 1.57441 5.05821 195 146 102 255 
-1.21509 1.57645 5.06014 207 158 113 255 
-1.16145 1.58887 5.05404 221 172 132 255 
-1.12024 1.5906 5.0444 216 167 129 255 
-1.10541 1.60132 5.04853 220 171 130 255 
-0.441908 1.79141 5.19862 176 131 95 255 
0.500044 2.02554 5.17296 126 63 30 255 
0.509106 2.03389 5.17319 127 63 34 255 
-1.23743 1.58112 5.07066 200 151 111 255 
-1.23183 1.58339 5.06773 206 156 117 255 
-1.20632 1.58748 5.06197 217 167 124 255 
-0.940636 1.65028 5.07805 210 160 126 255 
-0.435106 1.80078 5.19114 178 131 98 255 
-0.425931 1.80116 5.20294 185 138 106 255 
0.487484 2.0332 5.18542 153 84 37 255 
-0.745978 1.71909 5.11664 199 151 108 255 
0.0227916 1.91044 5.05045 104 49 26 255 
0.267013 2.0089 5.31387 165 93 49 255 
0.00058494 1.9125 5.04885 174 119 81 255 
0.0115618 1.91571 5.05255 122 66 37 255 
0.0220149 1.9178 5.04876 102 47 23 255 
1.45761 -0.112291 4.08637 70 22 8 255 
1.43096 -0.109869 4.0987 72 24 7 255 
1.44143 -0.100815 4.10123 77 25 9 255 
1.42488 -0.121768 4.10329 67 20 5 255 
1.41955 -0.0983485 4.11538 78 25 9 255 
1.42591 -0.0858727 4.11374 86 29 11 255 
1.40825 -0.100345 4.12203 78 28 14 255 
1.41603 -0.0846255 4.11739 82 29 12 255 
1.40335 -0.0851928 4.12833 68 18 5 255 
1.40764 -0.065567 4.1287 65 19 8 255 
1.17715 0.326905 3.89706 132 79 39 255 
0.97358 -0.0953387 3.8069 143 95 39 255 
1.18886 0.332201 3.91756 125 73 35 255 
1.17998 0.341453 3.91824 146 95 48 255 
1.18916 0.337423 3.93077 139 87 44 255 
1.15839 0.349838 3.90857 173 120 74 255 
1.18627 0.339982 3.94638 152 102 55 255 
1.20256 0.330789 3.95855 130 75 37 255 
1.20261 0.330664 3.95892 130 75 37 255 
1.22411 0.333238 3.97865 85 30 8 255 
1.23027 0.34448 3.98805 87 32 10 255 
1.17432 0.357666 3.95223 176 124 73 255 
1.21441 0.334719 3.9918 133 77 40 255 
1.22917 0.352201 3.99847 89 31 9 255 
1.1262 0.344683 3.91766 172 121 69 255 
1.12386 0.343948 3.91963 173 122 69 255 
1.13428 0.346378 3.92658 173 122 66 255 
1.19032 0.347005 3.97626 144 90 44 255 
1.22354 0.346221 4.00489 103 47 18 255 
1.09699 0.352552 3.91385 177 127 72 255 
1.10884 0.352989 3.92099 177 127 74 255 
1.11564 0.348414 3.92317 175 125 72 255 
1.12803 0.346437 3.93121 171 120 64 255 
1.15257 0.352408 3.95198 172 121 63 255 
1.16364 0.358351 3.97113 183 132 80 255 
1.17445 0.359423 3.97747 166 115 63 255 
1.18943 0.351894 3.98648 141 87 42 255 
1.22141 0.373098 4.01502 89 33 13 255 
1.10342 0.348717 3.93312 172 121 68 255 
1.11733 0.347839 3.93788 168 118 61 255 
1.12836 0.348897 3.94419 162 111 49 255 
1.14252 0.350368 3.95972 174 124 63 255 
1.1763 0.361001 3.99077 150 99 48 255 
1.17621 0.360974 3.99074 150 99 48 255 
1.07287 0.339637 3.92091 185 135 82 255 
1.09212 0.346833 3.92972 173 122 68 255 
1.09753 0.345129 3.94396 165 113 62 255 
1.11734 0.351018 3.95044 160 111 47 255 
1.12816 0.351727 3.95687 166 116 54 255 
1.1619 0.371137 3.99375 165 116 59 255 
1.10665 0.353993 3.95644 163 114 51 255 
1.1163 0.357312 3.96135 170 120 56 255 
1.15036 0.371421 3.98656 184 134 76 255 
1.08164 0.340081 3.94647 168 116 59 255 
1.11906 0.362581 3.98444 182 130 72 255 
1.15253 0.3697 4.00326 182 133 74 255 
1.16398 0.370112 4.01005 154 104 52 255 
1.05985 0.345627 3.94601 167 115 63 255 
1.11311 0.353328 3.98975 179 129 67 255 
1.14085 0.371677 4.00992 186 135 81 255 
1.35009 0.164281 4.22734 97 33 11 255 
1.04278 0.346253 3.94108 175 124 71 255 
1.06308 0.346324 3.96361 162 109 56 255 
